ply
format ascii 1.0
element vertex 717
property float x
property float y
property float z
property uchar red
property uchar green
property uchar blue
end_header
3.5340120382463445 -0.9078355171559136 7.336910926981405 81 82 100
3.53210856325011 -0.915612360862955 7.33364241466611 33 34 54
2.213676936634934 -0.027527575924679578 3.2003394694085516 78 85 104
0.3004627526248218 -1.1274306986917377 4.140618932685165 34 30 44
0.7269396016405602 0.14352193895297954 4.481585816679605 108 109 130
2.5788116276876805 0.30743485713747026 6.258291209302635 95 77 93
1.3935596346905688 -0.9272605584175965 5.305637463843771 37 36 50
1.5745535720796462 -2.2820134410087882 15.292621631044915 113 110 131
2.5749278917265124 -0.19360878281842928 9.348264172779578 118 110 134
8.266457079783553 4.776948230340185 -17.498403352805216 193 222 254
-0.6828218469918719 2.621925718739522 17.507470015015635 32 39 81
489.658881890522 456.0646784217923 -1322.0509729877203 81 98 142
1.7545229969310108 2.0752646833865125 7.132866624781756 74 79 109
1.7545229969310108 2.0752646833865125 7.132866624781756 74 79 109
1.9342508007672266 2.1475165092381228 8.486967286798006 53 45 68
2.3022297094742505 0.2256649707252741 4.35769000191076 129 130 151
2.2235423581810085 -0.4409508139438203 4.827476977138472 79 75 90
-1.9319720544805525 3.1941153913933835 24.04996921847135 84 75 92
9.78789683120761 -4.013624274814809 -20.34536646646218 102 111 140
15.427261020865329 2.886878279357634 -22.013326178900762 75 93 129
15.427261020865329 2.886878279357634 -22.013326178900762 117 103 128
3.1899275264320535 1.9580432668267784 6.746648021673438 133 137 175
2.781498502865361 -2.3547678329687978 10.860242738423613 149 139 163
8.850708384295777 -0.40518313016719826 -17.17256143887885 103 106 185
1.3136320906855499 0.9941100448196388 3.464405667977171 69 77 96
-5.523360179204689 -2.221074021957929 12.078304567205846 116 125 164
1.5849924973009966 -0.6698260665392564 3.4742955769395163 48 46 59
1.5849924973009966 -0.6698260665392564 3.4742955769395163 65 58 92
1.673194486855633 -0.20549866920016646 6.161845201855836 37 32 54
0.8055597388799931 -0.2758971281654358 4.6014995510081995 30 37 45
1.1886324355573237 -0.5956256706825115 5.062657494753548 122 135 170
0.8055597388799931 -0.2758971281654358 4.6014995510081995 30 37 45
1.2254345765874122 -0.16581605296665097 5.049969691236189 32 32 42
1.2254345765874122 -0.16581605296665097 5.049969691236189 32 32 42
-2.2332753260435694 5.712463739165033 21.632814893646447 74 78 105
2.1208330526114425 -0.050044355858339336 4.739214809211933 132 133 153
2.108627952334026 -0.06366377603291525 6.307979444407733 96 87 118
2.108627952334026 -0.06366377603291525 6.307979444407733 96 87 118
1.5973354094375998 -0.6456933936436254 6.109080488291971 98 100 121
-0.45742645859624165 -0.7596870625897858 4.2017227903154515 104 101 120
1.503718340702624 -0.23467860103263238 5.932533798574529 74 71 90
0.4025040216911052 -0.9085841911178606 4.214043051877848 101 91 115
2.9735338477191027 0.16625882211493093 6.801845671131817 162 176 211
1.0456160236762773 -1.2703687948815023 4.990100542778207 131 127 142
0.47010394546295275 -1.3132796405096656 4.345085755563263 104 86 108
3.025397118608263 0.2083594384647262 6.832999565676668 114 128 165
1.0456160236762773 -1.2703687948815023 4.990100542778207 131 127 142
0.8798301462783878 -1.3460910112964082 4.821416210535257 108 114 150
1.8866006787221055 -1.1795422636027098 5.861567264247541 55 47 71
1.794706896156171 -1.311325695810727 5.780230495514968 108 115 141
3.03109603068276 0.0877243444733295 6.846510373905023 100 119 151
1.7041129476918107 -1.1529798758861152 5.674810095997712 58 47 77
2.664833056412254 -0.23839270582085406 6.540105487889358 51 61 86
2.1705480685275544 1.4674631927801691 5.801502185847554 28 49 34
6.119744879309313 0.1565868106646175 -3.89859520850804 56 62 146
7.322919816251731 0.4070791079330703 -5.093072780405754 43 39 66
0.5229884320850592 -0.8220397678747747 4.322894145602499 51 48 69
0.8225661798515842 -0.03234414995905945 4.6057807294635245 92 77 96
1.9249001537713124 -0.6729217998896337 6.222969264474837 89 84 114
2.3858833514481805 -0.4722383803198629 6.380283235239833 119 120 141
2.3858833514481805 -0.4722383803198629 6.380283235239833 119 120 141
0.5410596255823208 -0.9433423204580714 4.3220894620820065 105 113 136
0.8134359367451942 -0.11402568985657718 4.604823183586294 150 165 198
1.14707786109055 -0.2775809942271731 5.006372617677799 128 143 174
3.0223819548809314 0.5452640502454176 6.834276507330997 148 159 191
3.010644136652138 0.2457336424470707 6.8401891607562835 92 86 124
3.0367145590450066 0.920065486729496 6.807177714033013 44 42 82
1.5563616725967977 0.18412128931181526 6.016645885356477 28 41 58
1.5522125999150818 -1.2642342963237534 5.5412101223557855 146 161 192
0.8272333983889298 -0.24271606399897488 4.624287374981636 18 17 22
1.9249001537713124 -0.6729217998896337 6.222969264474837 89 84 114
2.1357359038289307 -0.9706448601054021 6.159986716491634 33 30 41
2.2249429804147063 -0.6794657868800253 6.297903321296754 87 93 125
0.8272333983889298 -0.24271606399897488 4.624287374981636 18 17 22
2.6584454121954244 -0.1665190956144548 6.543890598704697 30 33 40
3.4228014885140023 -1.8733822019951913 7.416324010980539 47 37 64
2.6154165848234405 0.013111596912754165 6.484450460352096 65 54 68
1.4437670707121202 -0.9530992113291766 5.3998350619319355 75 61 87
2.6197426338121783 -0.07378209621088905 6.488579394062121 73 62 76
2.2109529369562093 -0.9123455187501255 6.218523767269092 32 30 41
3.021859440543666 0.7538879970296583 6.80305356548672 100 78 114
1.5349602458989797 -1.0558292577684525 5.505250795929762 63 52 84
2.5845038250991137 0.5490586122022428 6.3891341120635 56 58 99
2.6584454121954244 -0.1665190956144548 6.543890598704697 30 33 40
2.0526695555594885 -1.8776983703647603 6.073310484538941 24 26 47
2.170020692767723 0.5925369995240125 6.315251274147437 48 41 57
1.487130903736942 -1.0086154368150393 5.452059899291613 62 57 80
3.2699448103199136 -1.9032577281281393 7.285686236014653 51 41 75
3.080213834266547 -1.2331217772121126 7.0217983117391904 135 138 169
1.8155343152359773 -1.2503030663902772 5.777581843246145 107 115 134
1.9404082067352912 -1.1731241131238845 5.932317689926496 69 62 93
1.4740477225090958 -1.0672943755534166 5.406285192841821 43 40 59
1.663132294787601 -1.2161397906267812 5.653546297582879 58 55 64
2.036391712461622 -1.1156623693018521 6.015972510238771 105 95 119
2.0427556949075525 -1.9055399052193442 6.062012507037809 21 28 44
2.554218761368559 -0.753725382054232 6.487347008386527 148 162 197
1.696285485449281 -1.1555152520756713 5.683467747477504 57 48 77
2.1249275729147183 -1.169099544410602 6.081665181860249 104 116 140
3.1211537481515723 0.29433440024858426 6.938251426483746 95 102 128
1.748687508801524 -1.13922989360489 5.742104853609284 114 102 124
1.476307170581847 -0.24836315014545637 5.97007459810487 42 38 63
3.0279900221205382 0.016356674024702356 6.877368644632236 45 48 63
2.6208863892458685 -1.479576388389295 6.619893360369628 117 121 156
2.932078019044452 -1.4802244846680048 6.92050109298456 169 185 221
3.167424286912248 -1.9703943166498368 7.1696652543098 50 40 67
2.1440874435348354 -0.9960195580407031 6.146881463832426 88 92 117
3.4440375240096683 -0.7278222530230799 7.292099346502361 86 77 94
2.501839664086148 0.08284664941352689 6.393669057981911 40 34 46
2.2109529369562093 -0.9123455187501255 6.218523767269092 32 30 41
2.3440377208829704 -0.7939966933921593 6.316416254652423 24 22 35
3.1257004323144106 0.32981225857138985 6.940256628408111 84 89 111
3.2476767204570156 -1.9526701417184642 7.238904666354812 33 27 41
2.016004045623285 0.9184236734410487 6.217494200248971 40 32 43
1.1711070975659976 -0.5827561889740511 5.067113533773674 69 79 114
1.1797550077473407 -0.682373393346672 5.089666901131197 129 142 176
3.2476767204570156 -1.9526701417184642 7.238904666354812 33 27 41
3.0279900221205382 0.016356674024702356 6.877368644632236 45 48 63
2.4824763999947708 -0.4068053496474018 6.41928224489879 29 23 37
3.4440375240096683 -0.7278222530230799 7.292099346502361 86 77 94
1.6999970358682377 -1.090551199865012 5.702526625690067 89 79 104
1.9068647377099857 -1.7068942217477552 5.938417029610733 148 158 183
2.0825713563290758 -1.3925764120990038 6.111829866621914 128 142 171
1.6863122461059936 -0.2205972015978309 6.1852397735421345 52 44 68
1.602503914835114 -1.0565745929174257 5.581351453092459 29 27 38
2.4930299263281324 -0.3250898704783905 6.422740686221069 30 24 34
1.504195565276306 -0.2451801920803732 5.9988986140600895 38 34 57
2.381153606830617 -0.7234577086668477 6.3464303372537625 26 22 36
3.0280359669560633 0.046172440541355796 6.864415202014523 23 23 31
1.2258537014134754 -0.353998966754171 5.061860006738305 18 17 23
1.7854488811211264 -0.20679007661086343 6.284002379326456 40 37 56
1.2300494946786928 -0.06036215662659554 5.085874941571537 157 166 199
1.7316448399229916 -1.3071445613780837 5.727092212756607 93 97 126
2.608471615166397 0.5702626306669183 6.410218374715792 236 239 255
1.3757870234587852 -0.2625340665036661 5.866529317804228 38 37 55
1.3708986158322995 -0.9068610127579292 5.281217784375487 63 63 87
1.4070540511080152 -0.8317470140094798 5.351721585122276 66 58 79
0.6884802744972833 1.0511905376965354 4.298567414698685 49 48 62
1.2170813659253625 0.9042109265288267 4.665676532673418 40 48 67
2.425313680693517 -0.02865771202321136 6.381303216922515 121 118 139
1.6586442509453125 -0.22363415302879167 6.156404779323743 48 40 63
3.1692859697012263 0.03561012387671046 7.004766083105333 121 117 132
1.8648936055287324 -1.6160421487139538 5.888973907142197 153 162 195
2.3451343045429107 -0.08005408403975461 6.354888963802789 90 95 115
2.4930299263281324 -0.3250898704783905 6.422740686221069 30 24 34
1.6999970358682377 -1.090551199865012 5.702526625690067 89 79 104
3.0906929613904826 -1.281878683209379 7.0330030455122685 26 24 35
1.328568906541855 -0.25970612031271284 5.236762549681355 29 21 32
1.556324977489628 -1.0155680415725445 5.527334981136144 31 27 41
3.050511923101203 0.059188936377130234 6.87095000224207 95 110 131
3.059305234223546 0.8346628159825662 6.836388756143289 229 234 254
1.3401028678273292 -0.24517716170927192 5.284094059676308 81 79 93
3.445836822475357 -0.6590791271440302 7.286660041892503 99 86 104
1.7545280816667006 -1.1728763602892054 5.746217061053863 64 51 79
2.134059189857097 -1.725310720925548 6.140914548867287 18 21 26
3.102184671663075 -1.9547509228450672 7.124543615524914 53 40 57
1.4072116239729504 -0.9729416428777204 5.323855658205933 62 59 80
1.3270613538518674 -0.23750826353417365 5.2341355857596135 41 33 48
1.20796360294351 -0.35714177341744674 5.040695542458704 19 18 24
1.7650753932687189 -1.3085750928583326 5.763029118397926 121 132 160
2.082588369497607 -1.3221952562036632 6.088395414322353 54 53 84
1.6452686785641621 -0.6049085008753907 6.1429559838189745 79 74 96
2.482518401546156 0.8581382639080637 6.283554980055357 126 115 129
1.798824451776655 -1.930707625870794 5.822960552135147 46 53 79
0.6844849839659083 -0.16253396916928814 4.434657817534281 14 12 17
0.7710932715499645 -0.33966758721759893 4.531379018060124 84 86 99
2.4636300047040525 0.837842087198178 6.280164596171293 40 38 49
2.2666591252173998 -1.650648684436167 6.296082554241218 152 161 194
2.082588369497607 -1.3221952562036632 6.088395414322353 54 53 84
2.0926152509529445 -0.06298873908103912 6.330508018511124 85 79 107
0.6848433201721486 -0.3270530538953312 4.470325945486717 132 127 147
3.3739466560796756 -1.53849577441452 7.454680196519677 80 76 99
1.953215155965111 -1.2990892688198465 5.945494641264557 161 167 191
1.3132856016637378 -0.4430771998170077 5.2103688292227845 63 51 71
1.8410597456980227 -0.20024132723259436 6.34038657919266 42 39 56
2.077248932003208 -1.2565927317787586 6.10687154106695 125 135 162
3.635101971865844 -2.1902303153619957 7.668400288954952 135 150 219
0.5886176733215731 -1.2543533678602168 4.515480293913462 138 149 181
1.7229976200974924 -1.2936347690283823 5.718323831665934 119 133 160
3.4349848979372304 -1.5745412960746743 7.459877663095021 95 91 114
3.1830921702966046 1.195850252250288 6.862919347254073 32 35 52
2.0787077122802713 -1.5743959039749023 6.149922760298282 72 77 97
3.256294809343037 -1.3496248088985843 7.251614576466063 104 94 121
5.752476962716249 0.05417335165931195 -1.0979265143346895 131 166 196
3.490484710929841 -0.8608170959711351 7.34456944885741 104 102 126
2.8045786801737 -2.2164301420661756 6.81898095138039 159 171 211
3.5010171610606093 -1.9868911534246203 7.372383703844798 82 81 99
3.5287546989406646 0.623544816187104 8.20559815528028 135 142 171
2.2808349420986445 -0.9314083499538687 6.308405458180165 110 106 129
2.076404042675031 -0.9632659893106709 6.177811883442499 88 80 104
1.133710263940778 -0.27911244935444923 5.0175517726934284 113 126 158
2.978965278621275 0.47836988591594704 7.929336711587762 17 31 60
1.0143672757575004 0.6771178631563539 4.7913673093925455 133 139 171
2.7719345498711423 0.9395258394874354 6.773697250957061 68 75 93
2.9879692577245343 -0.23120745766762987 6.998562053614463 135 142 184
2.3470532101836916 -0.482273772693866 6.4439706734965645 108 110 133
2.2939530831223838 -2.2359162725108597 6.296013247665465 84 99 120
2.3470532101836916 -0.482273772693866 6.4439706734965645 108 110 133
3.29466338271279 -0.7658207352503001 7.273691019651051 131 144 179
3.9026556693288827 -1.1266977938690113 7.762974779713414 98 95 116
2.898377685327702 -2.1788776966909165 6.905371501456132 66 81 110
2.076404042675031 -0.9632659893106709 6.177811883442499 88 80 104
3.1672399137307825 -2.0597103450298504 7.0899087435143935 101 100 118
0.828655482238639 0.26018714834343437 4.558833740162221 129 135 169
3.087251293357086 -1.2748761252260472 7.065913372511107 71 69 82
0.4722399087175358 -1.6177410552566451 4.271770277054645 142 146 181
1.9716303449322543 -0.5686092397457769 6.340481928440531 94 95 125
3.0215497106513682 0.9330660344167686 7.0162886513655796 53 40 94
1.498487025176082 0.23131643920768935 6.049437571945384 20 30 81
2.1782389462455773 -2.257290862315645 6.182754073385444 79 97 121
3.9026556693288827 -1.1266977938690113 7.762974779713414 98 95 116
2.210833281374706 -2.2727768121714234 6.221613928764728 77 88 116
1.2839698724717545 -2.141361582002813 5.307914153621832 171 185 224
3.201643719999652 -1.2537805388366785 7.160832668642186 74 75 95
2.9326125495527724 -0.7103344050787578 6.916859988850086 119 128 157
3.4300414103853356 -1.8571168524014274 7.395083328837126 39 31 52
2.9684292675230783 0.9305857666393818 6.968557300559934 33 32 72
2.004451991715341 -0.4957236149346604 6.369821524598305 91 87 114
1.2203171013632321 -2.17280415253047 5.240055684581315 118 116 155
2.6586406206104733 -2.165506802848009 6.637036075111772 72 87 108
0.3239980079611593 -1.6879427037275248 4.032882263156908 68 69 74
3.226458067836642 -1.9183328092398162 7.211442504183624 36 32 46
2.663161680167895 -2.2396027404618364 6.693185589403364 135 148 180
1.8411263015083348 -0.7345635868935941 6.206824311891151 99 103 130
1.8982902605621927 -1.2536747533173167 5.906965620123964 133 139 161
1.9716303449322543 -0.5686092397457769 6.340481928440531 94 95 125
2.9473022735469687 -0.5252000876500708 6.948805530993448 113 107 141
3.3158997211670616 -0.6538399239498179 7.293016755405519 101 114 146
3.266973378150982 -0.6040731059304842 7.245143309644991 154 168 203
3.521982605197147 0.6954733964407435 8.209440706698732 135 145 172
1.6279851672472814 -1.1207574139590812 5.64358905341103 112 107 130
2.9082746528414516 -2.030302805384164 6.936753183161806 158 171 205
1.4896036123307876 -0.7430934923033803 5.819863200146024 121 117 144
1.90083008170802 -1.4964141153492028 5.915747090034723 134 142 165
1.5119299406419668 -0.2250158134990797 6.070700126681679 29 27 40
3.5436629646549553 -1.0716058940828979 7.443108635983462 69 68 84
2.523799256346758 0.3451296151331832 6.534236281800693 31 29 40
0.8257292460257982 -0.11238544722372222 4.597160007596576 128 141 175
1.8411263015083348 -0.7345635868935941 6.206824311891151 99 103 130
1.4080717939823495 -1.155213938466397 5.393286241535444 153 162 195
1.8414765840379308 -1.9753246703864282 5.864019188084016 25 32 50
2.1941644506628757 -0.6885141735852551 6.344896289243261 84 87 120
1.1103885028946376 -1.513253506221549 5.078882395361835 135 139 176
1.5469789703428216 -1.2508248800208737 5.559198452435873 57 73 99
3.796467256368224 -1.1622991824605247 7.657348957515918 18 16 27
3.5433545924561733 -1.8362655725299153 7.50110398490122 41 33 54
1.9002884555058153 -2.0020085496379414 5.928557220507162 17 23 37
0.9221184761486703 0.7192599167956609 4.646698388060315 76 75 73
1.7141004157071098 -1.7882714539675428 5.713897544920173 22 26 38
3.390001486601104 -1.8665837718926879 7.369253904073562 38 33 55
2.750268371404272 -2.1453897014622716 6.716579047250915 82 102 126
2.515695953355804 0.65516349569377 6.499485883236674 31 35 72
3.306490474668969 -1.9611148883319534 7.235717487234778 93 76 95
2.9578280410546594 0.24026728502500536 6.962959804996485 85 76 103
3.2765544918444776 -1.8883665079188479 7.268265736426488 43 34 61
3.1559165827483664 -1.9940654420120418 7.10789999264347 106 91 114
3.5039995551951106 0.23198039143580146 8.173859911731848 30 28 42
0.8899773926799591 -1.9040918183724072 4.823999987621577 159 166 195
3.034452251373418 -2.0865415408386205 6.971584086126167 81 102 129
2.2171699244471132 0.31945527841692195 6.432425999023519 57 52 72
2.965561319843545 0.8236126976179824 6.968425527372413 61 55 103
2.300022873572992 -0.9476825642372598 6.332979405516843 94 89 112
3.506182353838195 -1.8423523279240732 7.4627849507306685 36 31 53
2.8946117937766203 -0.6840440551073158 6.903414915143355 100 105 137
2.004451991715341 -0.4957236149346604 6.369821524598305 91 87 114
0.8225236770854617 -0.2762349561482031 4.590724104836965 42 44 56
3.1647444191478344 -1.260433751600957 7.132330039018157 82 81 97
2.3015671595124574 -0.9045850175252429 6.335640822652903 110 106 121
3.173381374866449 -1.9559741881130803 7.1551649844596765 41 37 54
0.9051898867814271 0.6183098144333614 4.6369421650325675 184 201 255
3.579439165131906 -1.1701045110943458 7.499739628979677 30 28 41
2.1092670605198025 -0.9798367874110577 6.198027141202623 29 26 35
2.6922231432401205 -1.0780712203571536 6.724545558244086 117 122 160
0.2441368435522616 -1.6743794307868956 3.926239432771951 87 79 90
0.7045850427716039 -1.649281389634211 4.555985087202363 75 72 81
2.951604277918063 -1.4427995022358517 6.954965676750176 121 109 133
2.3015671595124574 -0.9045850175252429 6.335640822652903 110 106 121
3.85009716865872 -1.8301480936334704 7.7173424340494465 37 29 53
0.25056180188227706 -1.69405069711661 3.92065490240512 15 14 19
1.1139241616762685 0.26441059091567726 4.944756711586026 113 121 157
3.043089309822787 1.3090500689581352 6.991122410849172 94 101 119
3.4535943446710253 -1.1588695741893627 7.402590758245638 84 92 128
1.9204000891871267 -0.9724693186071433 6.071928545868904 87 83 106
2.5390225209241675 -2.1895476892599195 6.526045545681646 83 103 127
2.5557071674957603 -2.186811871522228 6.545027918133835 76 92 117
0.47948345736404846 -0.9020137641171417 4.188734961198418 46 38 59
1.404173633277895 -0.25897476381580703 5.93837285971763 87 84 115
1.4789505178982345 -0.9995613070932318 5.4740050646180896 106 101 124
3.201643719999652 -1.2537805388366785 7.160832668642186 74 75 95
1.9782959471258077 -1.9787850431197505 6.001458641252169 21 24 33
0.5223380044823004 -1.3139333798926742 4.303480302993365 109 90 110
3.6636778713484635 -1.870315648995891 7.56216971599522 45 37 52
1.1073693445302413 -1.903862419977844 5.092878216860567 108 116 152
3.360727431094029 -1.9310307000043965 7.2990034994407536 48 36 56
2.2171699244471132 0.31945527841692195 6.432425999023519 57 52 72
1.7924898739356245 -2.185402506930483 5.849174225111268 116 114 153
3.2105561402066822 -1.9491801626685885 7.187549068659499 42 35 51
2.8311949508900933 -2.187564527543004 6.847263022344846 66 82 115
1.502150951269129 0.12742812491766178 6.055697469760187 23 36 70
3.2582097556875715 -1.9492643509067984 7.214088263091043 78 74 88
2.521077142323001 -2.1930398543445278 6.510342004813088 85 105 130
2.9972900488577703 1.2243225965887623 6.947925737964584 38 39 59
1.6437918209058913 -1.2163164627032093 5.6320068229053675 26 26 34
2.02855692244121 -1.045318282762909 6.105466196485854 33 28 34
0.8685375615397455 -2.0739409543450047 4.819006852069531 111 96 119
2.969754151670934 -0.3106702235842507 6.970159621276937 118 113 145
0.44028379566002 -1.6592107398183034 4.210566616874138 101 97 112
2.237869762097571 -1.08512017782778 6.248779396713481 24 26 38
2.5685908908767927 0.6645090111065008 6.553699059253729 39 40 84
1.6616321016725368 -1.2239570043647512 5.652272981732184 27 27 37
2.5784752065526995 -1.4767133194645716 6.609144714589637 162 171 200
1.316070923974191 -1.0294018208507532 5.287873826482781 132 146 175
2.147947482657432 -2.2815515928082224 6.154576996523443 76 83 109
0.48798605479015245 -0.8799052391345814 4.198944699995266 103 93 117
0.90213047554102 -2.1168541003757797 4.868491485722183 154 165 197
0.7780270642769113 -1.4108061330959558 4.658956360896518 102 107 145
0.9202899843889142 0.5853298353593462 4.657582903790314 25 36 64
2.282101556792196 -2.139133943530572 6.331020343767334 163 169 205
3.437704998207963 -1.9179388904695345 7.373104793031968 47 39 60
0.28315624991761323 -1.6919923080937835 3.968821371740883 16 16 18
3.695539252337467 -1.8050507269801355 7.62587467149107 38 31 49
3.4112348238616184 0.2860532371727755 8.113309535375738 33 31 42
1.8674603106182923 -1.0994115142956085 5.928117138064766 28 26 31
2.956474952026389 0.7598553820069196 6.9558813333001215 92 74 96
1.0814924505280434 -1.456319239718501 5.037616632254976 116 129 164
0.7780270642769113 -1.4108061330959558 4.658956360896518 102 107 145
0.6963910487712196 -1.6517646749108117 4.535701654197683 17 17 19
0.8493851608325055 0.08867351435873969 4.612186834743952 140 144 181
3.286149498360616 -0.6665500410144615 7.266353149558324 153 166 198
3.5894633590160447 -1.884960307611835 7.496789442647774 40 34 48
2.489356361332391 -2.1973355539212682 6.477163189520707 79 100 127
1.9790862324164757 -2.0473127756686 6.0293537481767165 160 174 203
2.247386583192342 0.9812843316964823 6.343029147171485 85 97 139
1.7307713112886984 -0.19924029538501867 6.29760508701958 45 43 56
0.4478278263728249 -1.6206599781966702 4.232293851732017 130 131 162
1.0814924505280434 -1.456319239718501 5.037616632254976 116 129 164
3.288290757917768 0.442025951310919 8.10034747214785 73 83 110
0.5558008744300945 -1.6660699588337442 4.350050757813312 14 14 14
1.4664202978843215 -1.2211272136015134 5.466069847139519 131 144 179
3.1804623558456684 -1.964752536095106 7.143286519423881 89 86 103
3.2747604910472075 -0.8946855171991641 7.252889930342299 110 114 151
1.4461246608594303 -0.9267918657723618 5.441080135563647 27 25 38
3.2747604910472075 -0.8946855171991641 7.252889930342299 110 114 151
2.572962558709977 0.10005422217705287 6.573410590868634 151 164 198
1.4612146203784668 -0.21410178471977145 6.03071926509919 79 76 95
3.3145784230419495 -1.8821629661764274 7.305389073318485 38 33 55
2.5935250480615877 -0.49884461617350223 6.6149154279067695 132 145 179
2.9972900488577703 1.2243225965887623 6.947925737964584 38 39 59
1.2285641902363498 -2.05038868154677 5.239212027719045 126 131 169
2.9908785325054823 0.4772692409563983 6.9828914385114755 102 94 118
1.2595586879534373 0.7466167244571988 5.104824706136547 103 100 121
1.997200657984051 -1.9633577494629146 6.020540018927901 24 26 38
1.31565706716414 -1.9082830380539195 5.333505627110868 172 183 213
1.7586169359045194 -0.19364779803675103 6.346403444577512 29 26 37
0.6599018605353705 -1.6556113619125559 4.488987734220129 15 13 18
2.9137783196288924 -0.013310285914879993 6.929979411314206 137 152 185
0.9321582224928703 0.712152738487802 4.657922084387465 92 102 111
0.5213490445998775 -1.6697259051308746 4.30298057019425 19 17 22
3.8769206927448487 -1.5401981497098547 7.741381127299707 100 97 116
3.4846329798459372 -1.663545527437993 7.458343848276556 97 93 110
3.3972804751296337 -1.9246119347180202 7.340063243756711 45 36 53
1.4461246608594303 -0.9267918657723618 5.441080135563647 27 25 38
0.6582221824351521 -0.6212623408195413 4.415086959863819 71 57 83
0.780585675969357 -1.6816301069638906 4.675839763487486 110 115 137
1.6070997525283766 -0.21276921797269482 6.180006067947963 29 27 40
2.9808942147278894 -2.1082981234311964 6.92476905462497 49 54 84
1.643681148999925 -1.2223502941065747 5.675249282371613 52 52 60
1.6214982887784763 -1.3502901696758987 5.639447378652663 106 116 151
3.3350288115239737 -1.9350967073811252 7.282549856840708 91 83 98
3.3084518129442344 -1.2519116265061545 7.247150262488562 82 84 97
1.944613341828862 -1.2453077929937288 5.950095256258494 120 132 156
1.680351203300116 -1.09643588802665 5.724966248067004 77 67 91
0.8329053384827986 0.10951243401543687 4.584425147276964 95 84 101
1.6805848805322359 -1.2311172082136417 5.67153123378959 33 33 41
1.9862082070836704 0.5992061571907293 6.386988693084882 50 41 60
2.539596373604052 0.6415191597824129 6.526300926312533 213 224 255
1.8458430960237018 -1.1200023093063693 5.900118688829315 78 73 95
2.518062486581338 0.5501134740845871 6.50759637632739 42 47 85
3.4585733090933193 0.10649110161826261 8.114570823832187 79 77 91
1.9706537163942133 -1.1187038049845932 6.017543203084979 28 26 39
1.5844579439087725 -1.5005893445740106 5.613216469926547 114 122 161
3.080487819879398 1.1688627600950292 7.029964817019232 96 104 123
1.4612146203784668 -0.21410178471977145 6.03071926509919 79 76 95
1.3277830593502002 -0.32211472412178593 5.861529371177339 128 126 148
2.03939137279354 -1.1336483219903817 6.080403656201534 56 44 64
2.414420861527954 -2.3181574535121214 6.458164261860631 109 117 156
1.815867333376529 -2.052797677878469 5.86546957929603 154 160 192
2.3612070425501415 -0.595561353984662 6.434014288832127 46 44 58
2.0649087382015523 -1.925806718610346 6.083385752332497 67 73 99
3.348961297427765 -1.2431823659878818 7.275802156632049 72 79 89
2.2978727699732815 -0.7857807814699519 6.355817862789059 75 69 95
3.2926704128931377 -1.2573390025794302 7.232461514702377 21 21 29
2.640144531367187 -2.1691155590823543 6.621261655643785 84 97 116
2.927536768718944 0.2699149710250476 6.942238913216397 142 155 189
3.733963262911477 -1.7959193559737034 7.6522986256758 34 29 49
0.8321284960958673 -0.08158446618163753 4.604170005765209 123 132 173
3.3681092351287805 -0.5107180643859306 7.331909056378172 97 92 114
1.2797513414588102 -0.9702345534648289 5.241445014848192 85 93 132
3.8897684300205593 -1.1420840427204821 7.728675772160601 76 79 88
3.0589288079892696 -0.327371025886268 7.065626490986843 116 126 162
2.536016161952987 0.4920826869011802 6.547894213861869 158 163 193
1.970149953543434 -1.264243991691262 5.993549875388798 135 147 173
1.841846519682439 -1.321146954007357 5.871475736258732 124 131 160
0.44028379566002 -1.6592107398183034 4.210566616874138 101 97 112
0.38445121330667403 -1.6835674529831461 4.111488216901567 18 17 22
0.8225236770854617 -0.2762349561482031 4.590724104836965 42 44 56
1.813837209216999 -0.1866019118971607 6.405012410804592 27 25 38
0.4158185797023061 -1.0755917528347998 4.087823295859114 45 38 54
0.428405658752164 -1.676540329395015 4.175978060798029 89 83 93
1.9868992023000631 -1.5547620981551864 6.058129561699302 166 172 198
0.7688121784705724 -0.8322606989799495 4.586461576967779 106 109 140
0.4201528383310928 -1.6781746532962378 4.157573454307786 21 20 26
2.928325005323085 -2.1884490599952255 6.934930426076593 134 146 172
3.758005253852503 -1.1703422423156262 7.6290225571373504 17 15 26
0.45139767800314956 -1.6777516502936323 4.207422179701941 24 22 27
1.507377611174736 -1.1200213652500333 5.476029541613551 37 36 52
1.5004742942501645 -0.23461671573338955 6.056997042916076 79 78 96
2.2662711888655758 -0.8070374678580507 6.343472099827032 40 36 50
2.969754151670934 -0.3106702235842507 6.970159621276937 118 113 145
3.682875179287177 -1.622926639740118 7.625031967188835 96 83 100
3.506834950473015 -1.1094266263659187 7.4365516720825395 129 142 174
3.4665100221856076 -1.8509942432524042 7.429471548938224 36 31 51
1.6344475872970563 -0.20934146608744025 6.209700383611015 30 28 41
2.431633937117337 0.3886706034124615 6.460918344993084 33 30 41
1.5804874841712329 -1.3824902450266614 5.603731712826564 97 110 144
0.7696485526934268 -1.6458658706465081 4.6427985940212455 21 20 26
0.35149239886640976 -1.165344572568531 4.004599253894615 20 24 36
2.0956460636587115 -1.731674394189565 6.118615952677828 21 25 36
0.8399838724540949 -1.9973523266131281 4.783165709482462 154 163 194
2.448466917976859 0.07620861846514534 6.48556608097585 35 32 43
1.662024496193948 -0.20582295483474178 6.239393863000115 30 26 40
3.016768781075114 0.8244029249416736 7.015357488649986 41 35 83
0.31703654376519474 -1.5118157493903948 4.02682829122563 20 18 21
0.45139767800314956 -1.6777516502936323 4.207422179701941 24 22 27
2.6976063947387834 0.8945941830866949 6.598019634965499 138 139 167
2.9294646971579565 -1.9880865080878882 6.939181332079957 168 178 214
1.7472770504751092 -2.2631048999076824 5.804740180946041 130 134 169
1.9016192244419794 -1.1121017027900104 5.962340001415091 86 71 92
3.2704002637161023 -1.258311827288779 7.209485418338408 85 88 103
1.2098770656835138 -0.062223135048762736 5.103220113356595 133 146 180
3.0080976954746963 -2.0940372894236976 6.95278382502164 81 97 122
2.523889515422375 -1.3736061332957261 6.567892737598965 109 109 147
2.923756465788403 -1.4814349755422054 6.939649812948702 163 178 211
2.9382142087812424 -1.280394758534218 6.981278838149208 148 159 191
0.6899330302108112 -0.49040901635887785 4.4468640086910325 71 63 87
2.606569968582088 -2.1747864341540946 6.585871402450039 95 109 120
2.427128012751355 -0.5002659817599145 6.4728330219081505 23 21 34
3.597346032987454 -1.4714191372395609 7.6702489935707225 48 44 67
1.374511574770521 0.8569529547272546 5.8822421320982405 52 66 95
3.6804281960679877 -1.1848199815567038 7.56575005132341 16 13 22
2.2769792520057877 -1.1260584214054534 6.319894886630739 132 147 178
3.135470226617623 -1.7679286256769884 7.178472887133298 10 13 18
2.4207266720767193 -0.6956978756767404 6.453202629838496 106 108 133
0.8685375615397455 -2.0739409543450047 4.819006852069531 111 96 119
1.4120727156180002 -1.8138727676702164 5.43148796316993 129 137 174
1.274436907108749 -0.9353956357915434 5.2405506399804285 138 150 190
0.3587815763108254 -1.6847393798615868 4.083271764201229 79 77 80
2.2246004667693065 -1.0991128760784634 6.224522606658665 24 26 38
2.5245800510277503 -0.740098344902793 6.5577222541143945 147 162 191
3.273250929036126 -0.622827514279896 7.246750131963757 104 116 154
2.463428584721908 -0.8665575744381033 6.498986073621418 140 153 185
3.3084518129442344 -1.2519116265061545 7.247150262488562 82 84 97
2.1496656677501274 -1.0467474609616236 6.192281857183003 102 96 122
2.084181035715507 -1.3703125634613922 6.137073454668868 61 63 78
0.428405658752164 -1.676540329395015 4.175978060798029 89 83 93
1.8293765929271768 -1.7338323050341944 5.903981737466335 129 134 156
0.31322131798342473 -1.6886485837103598 4.0163639100368504 15 14 19
1.4641967446276578 0.1774046897551946 6.007983331945754 32 41 74
0.40899272477032494 -1.3613775163312252 4.122346777457402 91 77 94
3.2287717378228167 -1.2658481938712816 7.17455445184127 73 73 81
0.42110838728567274 -1.0918393483599804 4.0961186022455305 105 91 106
2.0207804378499894 -1.600648895416187 6.0846797007286035 62 66 91
3.657597468256753 -1.8130467487388484 7.595235500270376 34 29 51
2.985042993605265 0.7521094507791244 6.973494672641475 105 86 105
2.9715868876004836 -1.6138038614201804 6.974282411803126 159 172 206
3.1903213863251874 -1.9856683800934944 7.1410468203920505 112 94 118
2.427128012751355 -0.5002659817599145 6.4728330219081505 23 21 34
3.4759992182117356 -1.90916261484495 7.402312776999957 43 35 50
0.8056389025579067 0.22444197692810056 4.533739828882389 90 78 102
3.71704078735605 -1.8557585946448638 7.60093478902545 90 84 98
3.0068769763454677 0.7528360838065538 7.958574071844433 126 131 127
1.141615447157508 0.11407950382150345 5.0002140514606985 88 97 128
2.946007418252363 0.9855088047272769 6.921213789489731 37 43 55
1.9698353479942918 -1.5619143150767902 6.020737255756088 123 128 158
1.3937202301617857 -0.7853222941166306 5.4936730894391745 60 53 69
2.3937149286262334 -0.6156721767293303 6.434587585728892 99 89 114
2.573518660140168 -0.5677666610339422 6.600817161629369 142 157 190
3.2024285873309286 -1.965095062816639 7.169156713932272 46 38 59
2.0807407791477424 -1.0627361705357674 6.1317888082774825 25 22 33
0.42110838728567274 -1.0918393483599804 4.0961186022455305 105 91 106
0.22011876328758362 -1.526144329097099 3.888251717139025 141 156 185
1.1237213942618802 -0.604293365556659 4.993342563972966 151 154 185
1.437332673680326 -0.6937207108000253 5.761601053743328 127 129 152
1.7356390467807603 -1.316698027324251 5.768318962747642 87 92 121
1.8508525110511793 -2.15258771889767 5.902607868312768 173 177 212
0.2849940227606559 -1.4231576712163965 3.9588705734204472 17 17 17
2.2389618551861905 -1.1076796602967307 6.234604652812222 79 89 114
2.043074057122293 -1.3315432953874575 6.105848556196433 111 118 144
1.1589701612277596 -0.5409005732885319 5.0691484725472895 117 127 163
2.4412528524927684 0.4915522014888847 6.47373482008053 26 23 32
1.487692655926589 0.17980693752931884 6.038724882382762 30 39 78
2.914806511616353 0.1606310465807184 6.933568805549374 146 159 191
1.6330161377707688 -1.0949479810609595 5.6560698341776385 24 22 35
0.7384132208542797 -1.6388940089414006 4.617625192484444 29 29 37
1.7034996898631987 -1.7856920634165183 5.704707184169126 111 109 130
2.519965544550829 -0.7645981944159003 6.548301476423962 136 149 183
3.618051019554652 -1.8550961153697894 7.534477647395001 81 70 84
3.015178709399692 0.534654830004379 7.962131271199352 37 39 90
1.135604109678044 -1.6001355947834546 5.112066463715748 138 134 171
2.134964292389552 -1.0250548156413597 6.186666153897814 27 25 36
1.8581872970336066 -1.6170040824349134 5.89764392525234 138 149 181
1.560270976228192 -1.2470578306332927 5.571007754629778 102 114 140
2.01379028660379 -1.0721675137932614 6.075927887867075 83 71 91
3.8947738003225885 -1.0292348770368924 7.7695828482277545 100 87 115
2.4066382551853733 -0.5812691830708981 6.450944145716586 26 24 35
2.1835854467364744 -0.9783872026894981 6.23666398990557 26 24 37
0.3987667756298952 -1.6807802894668316 4.145046390823329 78 79 84
1.6840053920058415 -1.1202233650395863 5.7161173313167986 25 24 32
3.6843247904623038 -0.8393705623960137 7.580844380193303 135 151 177
1.537685845639204 -1.0207687082917891 5.546976131439858 26 23 32
2.9388624257838436 1.3181958499330246 6.891640624686441 39 40 61
2.572962558709977 0.10005422217705287 6.573410590868634 151 164 198
2.623932499443799 -2.2255711546155843 6.652476467968818 58 71 105
3.0463304848625583 -0.38757897095284183 7.055386530897815 151 162 194
1.3934334925220746 -0.9762942816266584 5.337290292976724 45 44 60
1.2554434900345826 0.4223312430496084 5.0953313730233285 110 120 145
1.5198414773446767 -1.0600376775357125 5.521122630982498 55 46 75
2.081107900721525 -1.753368448586062 6.091084893825186 93 98 120
0.7888996276877245 0.5688319075320711 4.470175681050114 101 102 130
1.7476244518278519 -0.17603187643990084 6.349910701983617 84 81 108
2.4502855238052956 0.15802307777511945 6.481814950093333 33 30 41
3.002878693336798 0.05104084032087026 6.984135437550883 86 98 120
0.7888996276877245 0.5688319075320711 4.470175681050114 101 102 130
1.680351203300116 -1.09643588802665 5.724966248067004 77 67 91
3.4430577486107152 0.8218328010170568 8.144252428658442 108 115 134
3.3715653439202686 -1.2435466465537006 7.301357209856216 26 23 32
3.6782894516642637 -0.9847903891725477 7.588991078645165 92 87 119
3.6379570507485193 0.576233673898689 8.26745506712221 24 31 59
0.8630694837092984 -1.7136050135736038 4.79903298554337 149 155 189
0.43582229047226445 -1.6767733870408499 4.19098044900799 88 88 100
3.7739443716590904 -1.1653974118793318 7.638300384376208 61 59 70
1.6025946935735413 -0.2332986051680569 6.162237458826467 45 40 60
3.8336590617747563 -1.1570468435897678 7.688825355675016 18 16 27
0.669082988112906 -0.5894720273696443 4.424638105911812 68 63 93
1.676776187587932 -1.243388185132144 5.653323530128134 113 118 138
2.4263727385457527 0.5552729194695972 6.4538158704473485 33 32 46
1.3290659859415561 -0.2689238768029741 5.860149757720879 39 35 58
2.0163174595611095 -1.3314508727060026 6.048522179596283 141 152 180
0.36955758077911655 -1.1220190179950549 4.024135968213447 48 46 59
1.8957337042701483 -1.6877083663861674 5.954049472842067 39 38 52
3.1506549880140935 -1.2704209883831281 7.118326145004797 31 33 46
1.3301258523065158 -0.24937189203012985 5.874170322457345 28 26 39
2.060946111477125 -1.0698671800370096 6.096814848514331 94 84 108
0.3001627407662111 -1.6765896340140019 3.9954594889924766 22 19 28
2.786601405740811 0.88597123848917 6.821914540092751 149 154 184
2.0099799335280166 -1.9977447892116436 6.026804879826661 64 72 95
3.2926704128931377 -1.2573390025794302 7.232461514702377 21 21 29
1.3195285812797095 -0.4842738272724226 5.498911231153237 114 102 124
3.5652131296888303 -1.2049397834050475 7.467361014160025 18 21 30
1.285933664180629 -0.05578644501511254 5.188705260203571 130 119 136
3.4876459696588777 -1.2202184789747013 7.40326095746821 19 19 29
1.6805623432002468 -1.1601823779296974 5.701461357679231 48 40 63
0.6410010331337 -1.6571935905447854 4.474030001695253 66 63 70
1.9604130750475746 -1.0950917156754432 6.019895597528771 85 81 104
3.4876459696588777 -1.2202184789747013 7.40326095746821 19 19 29
1.741777091577208 -1.135847043516311 5.774865353746909 22 20 33
1.2838498293401912 -0.033413956798385824 5.191715839846724 64 55 76
1.8154662813737976 -1.7400282977482502 5.895880357908442 91 89 110
0.43579938954411973 -1.6634842188341301 4.185569180446994 28 26 40
2.0688912250255695 -1.3971495611325262 6.131174124751926 125 137 163
1.5849247347939746 -1.0617081779216868 5.600399799112046 24 22 35
1.456208257801314 -0.23393330890147113 6.014414922942896 26 24 37
2.406300989996288 -0.48836807014774664 6.462672196372656 75 72 93
1.1738038265660522 -0.3170266998436944 5.06938946107495 66 78 102
0.5106506956399227 -1.433042049972396 4.2477197555635575 36 32 49
1.3279087180818867 -0.49494754585834366 5.624101209098531 124 126 147
0.4399886859839351 -1.594791337831517 4.22272839422452 57 63 95
1.7431174471046205 -1.369150368339542 5.778813518186715 128 142 168
3.4625847796864995 0.4992119450649945 8.160069085141817 120 123 140
2.3125744957943324 -0.8042782949652371 6.366563437960689 24 22 35
2.4514704052446312 -0.3798584170584969 6.480472107725649 101 87 110
3.5413297001547264 -1.8697632492858076 7.467544153105024 87 76 90
1.770368660731081 -1.4034911012318831 5.799589632499312 104 111 137
0.7142192177842226 -1.6487241790550673 4.568119165140337 75 75 83
1.507377611174736 -1.1200213652500333 5.476029541613551 37 36 52
0.8744339436703754 -1.867455944308924 4.819197738858024 109 88 105
2.022396863170707 -1.108220179869647 6.062353203533023 107 95 117
3.045401747294858 0.027846086745863655 7.046878088588547 16 16 18
2.1031188014610613 -1.8422710839523562 6.131748742552959 134 140 172
2.2814760972805725 0.878153929238766 6.378870251022202 84 83 114
1.9157166317741918 -1.5190792518789031 5.926054176782544 100 105 134
0.7782051101949792 -0.3350971520072618 4.506324267141807 90 88 102
0.5423865767655993 -1.6652254988853286 4.330296574667723 80 75 82
2.8249757610093433 -0.49472756779785143 6.841470764674962 110 115 145
0.41635388826454833 -1.3558573765105948 4.141492972129369 102 91 105
3.564100264519977 -0.7255568260325886 7.482665089030803 27 25 36
2.0233136303230914 0.6873259477772593 6.391256369317801 104 109 138
3.349098652371467 -1.9090074516365796 7.303611435524962 92 86 98
0.496818722318918 -0.9024291952537392 4.211054551216663 136 138 153
1.944598267689368 -1.376161595392073 5.97283374614413 95 101 127
1.8232283431684864 -1.2708684190866852 5.82529591509233 121 133 157
2.921871579343353 -2.1243006204366837 6.881593902197121 55 58 91
3.12844577785605 -1.9271950031096883 7.1226189389797385 94 88 102
3.0175752458967007 0.026135211656293712 6.985917050341453 17 16 21
1.3290659859415561 -0.2689238768029741 5.860149757720879 39 35 58
1.8892226585537029 -1.7720841199026325 5.9310274524155036 117 122 141
2.5623521404379463 -0.6404266924331231 6.568794097383121 143 153 188
2.2741535586390365 -0.07300842830176632 6.425641566361944 36 34 48
0.3724731813482239 -1.2884909388864743 4.0616543352178605 82 74 89
2.4442294605578714 0.32972268284502615 6.481106396863547 30 26 40
1.8980089742980526 -1.712656607632707 5.939077193873415 127 132 162
3.4225145653234197 -0.6687227924403818 7.359363341178515 94 77 93
0.730580476162257 -1.6488449124802453 4.583450627807939 18 17 22
2.058534332648153 -1.3840029036272583 6.116436298493609 62 63 94
1.2039435513237964 -1.43505085519005 5.170951832285476 115 119 154
0.3567146740356844 -2.062936829043665 4.2666525803625355 34 30 45
3.0399899881862975 0.38799355409025227 7.039229488979495 107 115 136
0.33791232545786454 -1.6851723140397845 4.046371651703164 71 74 81
1.5789210056996832 -0.21956400258112937 6.136275239685345 37 36 44
0.47896075031399926 -1.5060734773404718 4.220837723468279 105 106 127
2.4537339944467904 -0.25107880267168897 6.4998399851045345 34 29 36
2.009059319347512 -1.3689371697426749 6.045318534931808 152 160 183
2.9939299722566974 0.8426537425045002 6.9932006951699 213 224 254
2.4426861499751116 0.4119670249708051 6.475436316656947 35 29 41
1.8980426616031782 -1.5772165741162103 5.92350525505684 65 69 104
3.1127953892275944 -1.2866527157214669 7.076109464670419 70 74 85
3.732294733058991 -2.13845834902944 7.67924447290701 138 152 217
1.5378268839024443 -0.22137282782022133 6.0965822704435535 22 21 29
1.6237975095689068 -1.1364596146792223 5.6442428536284615 63 55 79
1.8550903233015505 -1.1439649994361147 5.897500083232344 25 22 33
1.2427242305059691 0.1649805732906655 5.0893921882190085 82 93 113
3.1250296891245033 -0.004058937182514223 7.120827627656178 101 97 114
3.099841883029572 -0.08191033779141979 7.096013939191735 77 62 83
0.7122598799049797 -0.3226216937244431 4.454229407982573 117 113 128
3.4535943446710253 -1.1588695741893627 7.402590758245638 84 92 128
3.647314095551684 -0.4732546375327612 7.572814219751244 96 94 115
1.454252233024705 -0.25291796788000315 5.995036724051425 40 37 58
3.8714951773549626 -1.766730987253768 7.723027983981707 101 94 112
2.374644813734113 -0.03647440444808829 6.465816176184047 105 101 124
2.230740505278032 -0.9252797826117126 6.282340128691077 28 26 39
1.8083608291828066 -0.20702784897255572 6.384948607903456 42 39 56
2.3111942319310557 -2.2318535991973074 6.310697752543684 91 103 125
1.3770025056602788 -0.8002483138377866 5.351317373482322 32 29 40
1.2792657691069682 0.05890480720454936 5.757498006338691 21 24 39
1.2851470691607814 -0.11349576051619346 5.200249448303419 61 48 66
3.5413297001547264 -1.8697632492858076 7.467544153105024 87 76 90
1.5711570508050667 -1.1029160536006075 5.580789632865158 56 44 66
0.9022872926091192 -0.47218005701868876 4.729547099658159 96 105 138
1.6924651137253404 -1.7874922307967944 5.698438104233005 82 82 108
2.5175575824652183 0.21478172116117092 6.518677286729094 99 97 119
1.7308346504083205 -0.21104740442522618 6.2984606991525105 49 45 62
0.719392789597092 -2.160701891921133 4.6811963880017755 80 76 93
0.9323246222182128 0.5542886571120546 4.6801645608156255 97 99 148
3.667772434558805 -1.6065102056644207 7.62792578287758 98 85 103
1.9157166317741918 -1.5190792518789031 5.926054176782544 100 105 134
3.4126028867083553 -0.603580062515882 7.343848675291513 26 16 27
1.356116412277958 -0.8362218782217886 5.331038180165007 125 118 134
0.47776746531154773 -1.1836455175403509 4.1987003701366685 40 38 52
2.0170410891466846 -1.3989016202483704 6.056128238834637 144 155 183
1.630025073778289 -0.2295367401999463 6.191903766930201 43 38 61
2.954115010798511 -1.782732442458893 6.950668199833994 117 103 128
3.1264951020641107 -0.13497281377049455 7.121271490376621 76 63 91
0.36900044263791726 -1.682843964706348 4.092712198678741 74 74 82
0.3263277363338094 -0.9487105678736643 3.962538770075614 36 31 51
2.3645365906281754 -2.222640089865355 6.359676759592934 81 96 115
1.5730810327291136 -0.648270672342152 6.138190605642776 82 81 99
1.9207498028010836 -2.0006454227197445 5.944935327268421 17 21 32
1.9807312619392827 -1.1588942886529083 6.02301432822589 60 54 80
1.3277830593502002 -0.32211472412178593 5.861529371177339 128 126 148
3.437199200614871 0.19880434327484212 8.11920910899102 108 111 128
2.3261573353526424 1.0141558702202513 6.376334240978895 57 45 67
2.2959871786766626 -0.8299074949091843 6.339335508209058 94 86 110
1.6581679549780524 -0.22631454836148598 6.220676716263564 46 41 64
2.562949847694758 -2.236986178694364 6.592292431744313 60 74 109
2.9794820265783124 0.0377892991277889 6.978341717673855 21 20 26
2.4413983832101156 -0.4172297542620638 6.489604655081619 25 22 33
1.7357440864738312 -1.3471715153525585 5.770466966073114 29 32 51
3.411433154867633 -1.234884458874752 7.3361923726838585 21 20 28
0.7528828456270867 0.0391900667869849 4.4743135590312555 111 112 133
3.618051019554652 -1.8550961153697894 7.534477647395001 81 70 84
1.7805602878153581 -0.2106504248407762 6.356309997540126 46 37 56
2.5103026887554813 -1.3675702054124887 6.54205436959464 106 104 141
2.8960682020121564 1.1507425270374698 6.851677418376421 88 103 124
1.778468796983413 -1.391809751503836 5.806539474280297 43 44 65
2.2802131885017523 0.7271025646779283 6.409387953765399 42 34 47
1.3478406510475527 -0.25477702941619523 5.889875714948437 79 78 96
1.5235148025033705 -1.1352039647786187 5.494753401735908 33 35 48
1.7186288535797332 -1.310988115313681 5.7423375390377345 89 90 118
2.852122085079313 -2.125833484941532 6.813447989138082 77 93 109
2.2915889030217023 -0.8954335266461904 6.327093235082698 59 47 69
1.3934334925220746 -0.9762942816266584 5.337290292976724 45 44 60
2.1244145009309343 -1.2459362306612094 6.135593181223179 27 32 52
2.9334515112286543 0.340105502186265 6.944105149882572 144 155 187
1.6233302316824194 -0.21852141948245235 6.195564194973315 81 78 99
2.3879402681311217 -0.5656995036971604 6.4439899707209145 84 75 96
1.714501292529691 -1.3679416256673578 5.754610957678144 56 53 80
2.164773499593033 -0.0833825965865621 6.401592003287207 89 85 110
2.3029432744254064 0.6088613700541246 6.456039373978476 32 34 49
1.3568963442805957 -0.9101262669158425 5.2945757686009625 47 49 62
3.1327216283211348 0.07527363625593801 7.1075128244585395 99 105 131
1.7315715347954659 -1.1124949729309412 5.7804209977802605 77 67 91
3.816267916271489 -1.78860569197594 7.704135969021193 81 73 88
1.7369562065878381 -1.1782823532504212 5.766892098498576 55 45 69
0.814957620364034 0.09813827537745344 4.554989712066723 119 116 137
3.654633109948878 0.5615077537554027 8.269856753062065 136 167 198
3.643687207248625 -1.1921553927167217 7.531376479335035 16 15 23
1.3356879133004032 -0.693566938972303 5.294766495114788 63 55 79
1.3763126136526096 -0.665155012345577 5.574443011115885 113 105 129
3.039658861649052 1.157798238485068 6.992718868733288 52 50 71
3.6177675132904907 0.36588611090960277 8.25957233195702 88 91 110
0.27454324278727626 -1.152826028271047 3.9012821825662924 112 105 121
1.772433230680504 -0.276321600427012 6.342586727625142 100 98 120
1.2554960680685046 -2.1149599966714856 5.269982865974712 172 182 218
0.7648125863871532 -0.26606652474206294 4.513119404723959 13 13 15
2.230740505278032 -0.9252797826117126 6.282340128691077 28 26 39
3.635299786320289 -1.5868597561283002 7.587381119198401 92 88 103
2.0644487266899514 -1.3285878248110925 6.113752038698987 52 56 81
0.9133333638568171 -1.4708919590639742 4.831172921381139 114 127 162
